   5.0000000e+00   5.0000000e+00   5.0000000e+00   5.0000000e+00   5.0000000e+00   2.3604488e+00   2.6241047e+00   2.4789203e+00   1.0509468e+00   1.0833110e+00   1.1528996e+00   1.5124452e+00   1.5375707e+00   1.0416654e+00   1.5795535e+00   1.6423759e+00   1.1347527e+00   8.5688556e-01   8.7668665e-01   1.6306590e+00   8.9177409e-01   8.9045568e-01   9.0189724e-01   3.4007910e-09   5.2484337e-01   7.0839945e-01   5.2898422e-01   5.2862250e-01   5.3078352e-01   2.0886809e+00   1.4745205e+00   9.5405571e-01   9.6600768e-01   8.4061611e-01   1.2456201e+00   1.1674583e+00   1.0339219e+00   1.1909129e+00   8.3275866e-01   8.2606571e-01   8.2945553e-01   1.1495930e+00   1.4111951e+00   1.4406820e+00   1.3635000e+00   9.4243589e-01   9.2583655e-01   1.8651392e+00   2.3948199e+00   2.3669403e+00   2.1645070e+00   2.1299277e+00
   5.0000000e+00   9.7123928e-01   1.2491074e+00   1.4555323e+00   2.2312154e+00   2.4535187e+00   2.5978227e+00   2.4301618e+00   1.0303871e+00   1.0679191e+00   1.1360174e+00   1.4882118e+00   1.5151000e+00   1.7033454e+00   1.6066063e+00   1.4982276e+00   1.1234925e+00   8.5113510e-01   1.8292099e+00   2.2914858e+00   8.8350604e-01   8.8135066e-01   8.9261512e-01  -8.8874312e-11   5.2126909e-01   5.2458736e-01   5.2610831e-01   5.2566877e-01   5.2739800e-01   2.2213476e+00   1.4711891e+00   1.4900332e+00   9.6758654e-01   1.2640363e+00   1.2347523e+00   1.4996333e+00   1.0077024e+00   1.1833936e+00   8.2770878e-01   8.1967584e-01   8.2212492e-01   8.2313953e-01   1.3963313e+00   1.4275289e+00   1.3505952e+00   9.3628068e-01   1.3700174e+00   1.8557248e+00   2.3925098e+00   2.2285508e+00   2.1587423e+00   2.1209975e+00
   5.0000000e+00   8.4160930e-01   1.2152100e+00   1.9808548e+00   2.1784658e+00   2.5305748e+00   2.5796423e+00   2.0212078e+00   1.0006012e+00   1.7237402e+00   1.1123975e+00   1.4579895e+00   9.7795583e-01   1.6931032e+00   1.6000183e+00   1.4887209e+00   1.2451813e+00   8.9503212e-01   2.2677754e+00   2.2620688e+00   1.6903945e+00   1.6082094e+00   8.8102380e-01   1.5777596e+00   5.1680800e-01   1.1619112e+00   5.2259938e-01   1.5136585e+00   1.6874653e+00   2.1949209e+00   1.4665020e+00   1.4858268e+00   9.6829414e-01   1.1757583e+00   1.1624978e+00   1.4864312e+00   1.1430052e+00   1.1741021e+00   8.1381326e-01   8.1155834e-01   7.8959228e-01   1.0860215e+00   7.8448611e-01   1.4117401e+00   1.6059860e+00   9.2884502e-01   1.3589208e+00   1.8444653e+00   2.3893796e+00   2.2248617e+00   2.1518125e+00   2.1102872e+00
  -1.0492070e-01   3.9870236e-01   1.2803666e+00   1.6933977e+00   2.0409570e+00   2.3450666e+00   1.9419663e+00   2.0661869e+00   1.9250144e+00   1.5432508e+00   1.7567463e+00   1.3757944e+00   1.4811265e+00   1.6663330e+00   1.5637247e+00   1.4566767e+00   2.3686597e+00   2.2291588e+00   2.2308918e+00   1.7255319e+00   1.5909691e+00   1.5851165e+00   1.5546373e+00   2.1205966e+00   5.1108175e-01   1.1494669e+00   5.1821950e-01   1.4957218e+00   2.1584595e+00   2.1615137e+00   2.1231419e+00   1.4792966e+00   9.4437210e-01   1.1608073e+00   1.1466907e+00   1.4699873e+00   1.1351466e+00   1.1238050e+00   8.0559049e-01   8.0103655e-01   1.0902263e+00   1.3735037e+00   1.3195279e+00   1.2597020e+00   1.7770508e+00   1.5989169e+00   2.0198991e+00   1.8307646e+00   2.3850380e+00   2.2202130e+00   2.1433232e+00   2.0972115e+00
  -1.5850555e+00  -4.3421968e-01   5.6596845e-01   1.1622388e+00   1.5092154e+00   1.7628364e+00   1.7644383e+00   1.6661509e+00   1.7660039e+00   1.6021767e+00   1.4759286e+00   1.8342520e+00   1.4447689e+00   1.5757261e+00   1.4259760e+00   1.9416481e+00   2.2320910e+00   2.3140839e+00   2.1757217e+00   1.6314053e+00   1.5617056e+00   1.4819397e+00   1.4673285e+00   2.0866413e+00   1.1300724e+00   1.0152803e+00   5.1259247e-01   1.4724767e+00   2.1144769e+00   1.7025717e+00   2.1021154e+00   1.4689465e+00   9.2629318e-01   1.1417661e+00   1.1283343e+00   1.1764278e+00   1.1695555e+00   1.1107188e+00   7.9462645e-01   7.8707543e-01   1.0721799e+00   1.3485963e+00   1.2547810e+00   1.2378376e+00   1.5857318e+00   1.5839092e+00   1.7097527e+00   2.1494625e+00   2.3788640e+00   2.2141954e+00   2.1326984e+00   2.1647080e+00
  -3.7466894e+00  -3.9477348e+00  -3.5300020e+00  -2.0575491e+00  -1.9903859e-01   7.9013479e-01   1.0441901e+00   1.2020650e+00   1.3683218e+00   1.5086919e+00   1.7078878e+00   2.0902597e+00   1.9273234e+00   1.3188919e+00   1.4116352e+00   1.8851906e+00   2.1346012e+00   2.2251333e+00   2.2643982e+00   1.5699793e+00   1.6202323e+00   1.7822006e+00   1.3044513e+00   1.1789366e+00   1.1065111e+00   9.9732510e-01   1.0830074e+00   1.4411730e+00   2.0550712e+00   2.0184321e+00   2.0710372e+00   2.0042010e+00   1.7149135e+00   1.2127322e+00   1.4651026e+00   1.2046262e+00   1.1577191e+00   7.7741031e-01   7.7955721e-01   1.0341619e+00   1.0489733e+00   1.3112937e+00   1.2294199e+00   1.0955856e+00   1.5652583e+00   1.6214425e+00   1.8022292e+00   2.4021715e+00   2.3697908e+00   2.1676554e+00   2.1190359e+00   1.7294395e+00
  -4.7428997e+00  -4.4953899e+00  -4.4361693e+00  -4.2372516e+00  -3.9463198e+00  -3.4613727e+00  -2.1243831e+00  -6.6763614e-01   2.8720565e-01   9.4015722e-01   1.4429038e+00   1.9544009e+00   1.7880213e+00   1.7258613e+00   1.8125846e+00   2.1876045e+00   2.0279747e+00   1.8478264e+00   2.1650817e+00   1.8851985e+00   1.5589512e+00   1.6859155e+00   1.4557620e+00   1.0559075e+00   1.0706166e+00   1.4958491e+00   1.4829054e+00   1.5327506e+00   2.0670706e+00   1.5643026e+00   1.9179365e+00   1.9457682e+00   2.0574619e+00   1.7101068e+00   1.4211598e+00   1.0445047e+00   1.1408908e+00   7.6283875e-01   1.4701343e+00   1.0687394e+00   1.0444525e+00   1.7564003e+00   1.1957588e+00   1.2430610e+00   1.5370944e+00   1.9434208e+00   1.7752186e+00   2.7065414e+00   2.8035251e+00   2.1557316e+00   2.2577326e+00   1.7592451e+00
  -5.4602707e+00  -5.3240197e+00  -5.0770412e+00  -4.8844274e+00  -4.7190023e+00  -4.4603222e+00  -4.0967170e+00  -3.5005852e+00  -3.0564403e+00  -1.4343991e+00   1.8744277e-01   9.5187625e-01   1.4014437e+00   1.6904104e+00   1.6202403e+00   1.5408306e+00   1.4312138e+00   1.6360570e+00   1.6689557e+00   1.8318906e+00   1.4477496e+00   1.1295332e+00   1.5976238e+00   9.9086980e-01   1.0099716e+00   1.4174904e+00   1.4047325e+00   1.4519914e+00   1.9413315e+00   1.6886309e+00   1.8180956e+00   1.8585299e+00   1.7569635e+00   1.6535041e+00   1.1933041e+00   1.6552298e+00   1.1154783e+00   1.4622035e+00   1.4084897e+00   1.0283375e+00   1.5828058e+00   1.6916601e+00   1.1490680e+00   1.6680500e+00   1.4962847e+00   1.8942702e+00   1.9978960e+00   2.6603051e+00   2.8248660e+00   2.2925417e+00   2.2279851e+00   1.7467541e+00
  -6.0096977e+00  -5.8491413e+00  -5.5674122e+00  -5.3481357e+00  -5.1521358e+00  -5.0222151e+00  -4.9132198e+00  -4.6965179e+00  -4.4613591e+00  -3.8742623e+00  -3.8411956e+00  -3.7336817e+00  -1.7984121e+00  -1.0597529e+00  -1.6821017e-01   2.7797112e-01   8.3078953e-01   8.5101178e-01   9.8313367e-01   1.5458634e+00   1.4714596e+00   1.1761376e+00   1.2176734e+00   1.0976370e+00   1.0312132e+00   1.2877211e+00   1.0655209e+00   1.4412748e+00   1.2527642e+00   1.2467132e+00   1.4716508e+00   1.7166890e+00   1.6536005e+00   1.6353270e+00   1.3585233e+00   1.6006614e+00   1.5815433e+00   1.3844743e+00   1.1152350e+00   1.5623076e+00   1.6290624e+00   1.3962509e+00   1.4863876e+00   1.6758170e+00   1.4329391e+00   2.0213996e+00   1.9350485e+00   2.5899112e+00   2.3576378e+00   2.2594211e+00   2.1843784e+00   1.7247377e+00
  -6.3826739e+00  -6.2873027e+00  -6.0486087e+00  -5.8605359e+00  -5.6769907e+00  -5.4189259e+00  -5.3082676e+00  -5.1756545e+00  -5.0823109e+00  -4.9087710e+00  -4.8516543e+00  -4.6736848e+00  -4.2518482e+00  -4.0689190e+00  -3.4913678e+00  -2.8900635e+00  -1.8810228e+00  -1.7270095e+00  -1.0598453e+00   2.8881947e-01   4.7593393e-01   7.5693336e-01   7.4643235e-01   9.9396467e-01   1.1000396e+00   1.2791548e+00   1.0192323e+00   1.0130393e+00   1.2396086e+00   1.1120047e+00   1.5117971e+00   1.5202930e+00   1.6085953e+00   1.3375603e+00   1.3305218e+00   1.6625785e+00   1.5768728e+00   1.4098303e+00   9.8923786e-01   1.5392428e+00   1.4519623e+00   1.3296787e+00   1.2918352e+00   1.2263319e+00   1.3977077e+00   1.9096965e+00   1.8316124e+00   2.4727895e+00   2.2944373e+00   2.2027355e+00   2.1769621e+00   1.6827715e+00
  -6.6121574e+00  -6.5563151e+00  -6.4663695e+00  -6.3873562e+00  -6.2459179e+00  -6.0139371e+00  -5.8098207e+00  -5.6160120e+00  -5.4687025e+00  -5.2873292e+00  -5.2277571e+00  -5.1484843e+00  -4.9997472e+00  -4.9456214e+00  -4.7227712e+00  -4.1029154e+00  -3.0277428e+00  -3.5258786e+00  -3.5652046e+00  -2.7444027e+00  -3.0944997e+00  -2.3723931e+00  -2.3816109e+00  -8.4150711e-01   7.5580648e-03  -3.2750988e-01   1.7631159e-01   4.0837469e-01   5.1726037e-01   3.7676267e-01   5.2235630e-01   9.8479268e-01   1.0932151e+00   1.2356455e+00   1.1619721e+00   1.6293801e+00   1.4258536e+00   1.1920317e+00   1.4443718e+00   1.2358556e+00   1.1079063e+00   1.0669178e+00   1.0609575e+00   1.1831765e+00   1.0890121e+00   1.5804648e+00   1.7530316e+00   1.8707511e+00   2.4170500e+00   2.1392107e+00   1.6837187e+00   1.5938528e+00
  -6.9806118e+00  -6.8421784e+00  -6.7621927e+00  -6.6824185e+00  -6.6200559e+00  -6.3887987e+00  -6.2688836e+00  -6.1493003e+00  -5.9864182e+00  -5.8920339e+00  -5.6405416e+00  -5.5641912e+00  -5.4614923e+00  -5.3506262e+00  -5.1675023e+00  -4.9185294e+00  -4.4008025e+00  -4.5290587e+00  -4.3869888e+00  -3.7036507e+00  -4.3313628e+00  -3.7451397e+00  -3.4487006e+00  -2.9333515e+00  -2.6691968e+00  -2.8388887e+00  -2.9190790e+00  -2.6080604e+00  -2.3470796e+00  -1.8291777e+00  -1.5998299e+00  -1.0500530e+00   8.1320440e-02   2.5341238e-01   6.1984082e-01   7.3819800e-01   7.8357730e-01   6.8767849e-01   7.9890295e-01   7.7789923e-01   7.5245725e-01   6.8182187e-01   5.1408213e-01   6.0019504e-01   8.3994034e-01   1.2045153e+00   1.3332858e+00   1.4011060e+00   1.8936743e+00   1.8241865e+00   1.5192825e+00   1.3768480e+00
  -7.7733166e+00  -7.5731531e+00  -7.4393632e+00  -7.2381604e+00  -7.0669223e+00  -7.0242775e+00  -6.8597659e+00  -6.6677279e+00  -6.4987317e+00  -6.3207188e+00  -6.0544502e+00  -5.9661857e+00  -6.0678310e+00  -5.9023342e+00  -5.6636155e+00  -5.3584654e+00  -4.9788315e+00  -5.0439117e+00  -4.9557160e+00  -4.7308062e+00  -4.8740135e+00  -4.7518391e+00  -4.6236329e+00  -4.0757787e+00  -3.6314019e+00  -3.9649383e+00  -3.6805162e+00  -3.2888422e+00  -3.0201877e+00  -3.1168760e+00  -3.0557797e+00  -3.0599096e+00  -2.9879464e+00  -2.8925695e+00  -2.6073564e+00  -1.9361029e+00  -1.7536698e+00  -1.7141613e+00  -1.6959180e+00  -1.4573175e+00  -1.8048122e+00  -1.4594233e+00  -1.3407272e+00  -1.5284757e+00  -1.1179694e+00  -3.6956269e-01  -1.6350439e-01   2.3146225e-02   4.8958370e-01   7.4539458e-01   6.6431494e-01   6.9371468e-01
  -9.0051516e+00  -8.7613165e+00  -8.5671188e+00  -8.2687353e+00  -8.1103821e+00  -8.0079849e+00  -7.8006566e+00  -7.4551824e+00  -7.1316787e+00  -7.0767874e+00  -6.9111621e+00  -6.7020879e+00  -6.7742965e+00  -6.5518621e+00  -6.1276039e+00  -5.8447564e+00  -5.4349973e+00  -5.4938616e+00  -5.3476866e+00  -5.2138795e+00  -5.3387625e+00  -5.2139252e+00  -5.1745513e+00  -4.8728130e+00  -4.6433744e+00  -4.7575525e+00  -4.7474835e+00  -4.6016185e+00  -4.5089821e+00  -4.1353314e+00  -3.9047582e+00  -3.5526951e+00  -3.1090245e+00  -3.1503475e+00  -3.1426522e+00  -3.1555566e+00  -3.1906313e+00  -3.1685472e+00  -3.1181861e+00  -3.1414374e+00  -3.1774262e+00  -3.1985241e+00  -3.1519619e+00  -3.1093742e+00  -3.1426980e+00  -3.1476052e+00  -3.1449457e+00  -2.9556736e+00  -3.1062321e+00  -3.0772056e+00  -3.1288923e+00  -3.1601069e+00
  -1.0530025e+01  -1.0243178e+01  -9.8903827e+00  -9.4864867e+00  -9.3476900e+00  -9.2430561e+00  -8.9700280e+00  -8.4574703e+00  -8.0750425e+00  -7.9790833e+00  -7.7443884e+00  -7.5547816e+00  -7.6606670e+00  -7.5954605e+00  -7.1362560e+00  -6.3792451e+00  -5.8848122e+00  -6.0767597e+00  -5.9715595e+00  -5.8036367e+00  -5.9098095e+00  -5.7709737e+00  -5.6537182e+00  -5.3463146e+00  -5.1560266e+00  -5.1535619e+00  -5.1171258e+00  -5.0390829e+00  -4.9492286e+00  -4.9080358e+00  -4.8283908e+00  -4.6607741e+00  -4.4941327e+00  -4.3968475e+00  -3.9130261e+00  -3.5862138e+00  -3.3644064e+00  -3.5076274e+00  -3.1780061e+00  -3.1981349e+00  -3.4252734e+00  -3.4233915e+00  -3.2087364e+00  -3.3231290e+00  -3.2519621e+00  -3.2765247e+00  -3.3892444e+00  -3.3749590e+00  -3.3928305e+00  -3.4986462e+00  -3.5414027e+00  -3.4795751e+00
  -1.2184276e+01  -1.1882884e+01  -1.1475700e+01  -1.1009060e+01  -1.0828246e+01  -1.0445357e+01  -1.0246751e+01  -9.7169474e+00  -9.3164092e+00  -9.3179519e+00  -8.9305955e+00  -8.5718622e+00  -8.6400633e+00  -8.6286291e+00  -8.1955295e+00  -7.5072526e+00  -6.9559830e+00  -7.1566756e+00  -6.8805512e+00  -6.7446547e+00  -6.7218800e+00  -6.6014498e+00  -6.4040750e+00  -5.8957576e+00  -5.5600605e+00  -5.6758361e+00  -5.6863141e+00  -5.6099616e+00  -5.5043256e+00  -5.4406404e+00  -5.3229471e+00  -5.1797149e+00  -5.0984541e+00  -5.0859006e+00  -4.9603941e+00  -4.7250385e+00  -4.4213427e+00  -4.5141282e+00  -4.3303122e+00  -4.2444734e+00  -4.4314830e+00  -4.3554569e+00  -4.1898248e+00  -4.2088153e+00  -4.2726599e+00  -4.1439074e+00  -4.1594305e+00  -4.0327934e+00  -4.0307345e+00  -4.1100133e+00  -4.1336958e+00  -4.0607704e+00
  -1.3521532e+01  -1.3297605e+01  -1.2853286e+01  -1.2433835e+01  -1.2341524e+01  -1.1963979e+01  -1.1622762e+01  -1.1160776e+01  -1.0784851e+01  -1.0718111e+01  -1.0262364e+01  -9.9919919e+00  -1.0052772e+01  -1.0110235e+01  -9.7049396e+00  -8.7323042e+00  -8.0139978e+00  -8.2786056e+00  -8.1615526e+00  -8.3508256e+00  -8.2601629e+00  -8.2245817e+00  -8.1741763e+00  -7.4006391e+00  -6.8787560e+00  -7.2200039e+00  -7.2176487e+00  -6.8005609e+00  -6.6424270e+00  -6.4223435e+00  -6.0279176e+00  -5.7841124e+00  -5.6849865e+00  -5.6724769e+00  -5.4899272e+00  -5.2618338e+00  -5.0866329e+00  -5.2013235e+00  -5.1482366e+00  -5.0081620e+00  -5.0867666e+00  -5.0233931e+00  -5.0189060e+00  -4.9804385e+00  -5.1319378e+00  -5.0122785e+00  -5.0685058e+00  -4.9816428e+00  -4.9802840e+00  -4.9371827e+00  -4.8690523e+00  -4.8143587e+00
  -1.4522050e+01  -1.4559395e+01  -1.4176512e+01  -1.3645539e+01  -1.3500153e+01  -1.3164331e+01  -1.2914240e+01  -1.2519569e+01  -1.2288170e+01  -1.2175119e+01  -1.1932021e+01  -1.1732714e+01  -1.1696000e+01  -1.1631676e+01  -1.1180340e+01  -1.0242176e+01  -9.5418783e+00  -9.5833294e+00  -9.3316470e+00  -9.7277393e+00  -9.7690096e+00  -9.5089396e+00  -9.6249601e+00  -8.9805603e+00  -8.5160118e+00  -8.5640597e+00  -8.9380129e+00  -8.7004426e+00  -8.5843640e+00  -8.3569261e+00  -8.1672658e+00  -7.8340806e+00  -7.8635158e+00  -7.6261989e+00  -7.2790215e+00  -6.8032128e+00  -6.1456517e+00  -6.3359996e+00  -6.3773170e+00  -5.9225065e+00  -6.0941278e+00  -5.9639709e+00  -5.9158981e+00  -5.8308896e+00  -6.0420280e+00  -5.8974297e+00  -5.9922659e+00  -5.9120726e+00  -6.0135653e+00  -5.9708081e+00  -5.9063785e+00  -5.9553693e+00
  -1.4460413e+01  -1.4618164e+01  -1.4666850e+01  -1.4697398e+01  -1.4506898e+01  -1.4274991e+01  -1.4107841e+01  -1.3812588e+01  -1.3655768e+01  -1.3723527e+01  -1.3646911e+01  -1.3411235e+01  -1.3222379e+01  -1.2993615e+01  -1.2419830e+01  -1.1568469e+01  -1.1096059e+01  -1.0941144e+01  -1.0564531e+01  -1.1027663e+01  -1.0947860e+01  -1.0821084e+01  -1.0982743e+01  -1.0443361e+01  -1.0175935e+01  -1.0461243e+01  -1.0498871e+01  -1.0148665e+01  -1.0123048e+01  -9.8723544e+00  -9.6117774e+00  -9.4935603e+00  -9.6210425e+00  -9.5157108e+00  -9.3381291e+00  -9.1430264e+00  -8.6680424e+00  -8.6316438e+00  -8.6893383e+00  -8.0933622e+00  -8.6457637e+00  -8.1682282e+00  -8.0740416e+00  -7.5665505e+00  -7.9060432e+00  -7.9067473e+00  -8.0074808e+00  -7.6144812e+00  -7.7924343e+00  -7.5892305e+00  -7.4987565e+00  -7.6765424e+00
  -1.2707256e+01  -1.2891121e+01  -1.3384437e+01  -1.4099555e+01  -1.4327863e+01  -1.4455113e+01  -1.4602814e+01  -1.4811796e+01  -1.4822094e+01  -1.4841565e+01  -1.4811899e+01  -1.4584944e+01  -1.4343761e+01  -1.4238744e+01  -1.3844044e+01  -1.2912836e+01  -1.2460601e+01  -1.2510388e+01  -1.2082073e+01  -1.2446931e+01  -1.2448588e+01  -1.2376533e+01  -1.2413496e+01  -1.1830052e+01  -1.1590307e+01  -1.1874209e+01  -1.1831821e+01  -1.1501871e+01  -1.1454023e+01  -1.1266026e+01  -1.1013872e+01  -1.0876261e+01  -1.0800088e+01  -1.0665289e+01  -1.0472976e+01  -1.0228678e+01  -9.8597172e+00  -9.7542235e+00  -9.8614593e+00  -9.4267326e+00  -9.7054210e+00  -9.5305301e+00  -9.6455744e+00  -9.3846838e+00  -9.4651648e+00  -9.3918608e+00  -9.4718506e+00  -9.2628407e+00  -9.3723787e+00  -9.3882156e+00  -9.3177917e+00  -9.4370111e+00
  -1.1224217e+01  -1.1672274e+01  -1.2220478e+01  -1.2668596e+01  -1.3287642e+01  -1.3670391e+01  -1.3889750e+01  -1.4136580e+01  -1.4336457e+01  -1.4514822e+01  -1.4819686e+01  -1.5269106e+01  -1.5400513e+01  -1.5305737e+01  -1.4982863e+01  -1.4194216e+01  -1.3756446e+01  -1.3930463e+01  -1.3703936e+01  -1.3800112e+01  -1.3783971e+01  -1.3551882e+01  -1.3576490e+01  -1.3105596e+01  -1.2777593e+01  -1.2924929e+01  -1.2843008e+01  -1.2574746e+01  -1.2608551e+01  -1.2385241e+01  -1.2113998e+01  -1.1849848e+01  -1.1549513e+01  -1.1448458e+01  -1.1336568e+01  -1.1179937e+01  -1.0869129e+01  -1.0632112e+01  -1.0641267e+01  -1.0283812e+01  -1.0663592e+01  -1.0483354e+01  -1.0520866e+01  -1.0440356e+01  -1.0568324e+01  -1.0552913e+01  -1.0629463e+01  -1.0428931e+01  -1.0641124e+01  -1.0645332e+01  -1.0546297e+01  -1.0696550e+01
  -1.0543945e+01  -1.0908009e+01  -1.1758654e+01  -1.2609773e+01  -1.2865758e+01  -1.3035311e+01  -1.3046808e+01  -1.3073327e+01  -1.3040356e+01  -1.3015700e+01  -1.3266261e+01  -1.4009542e+01  -1.5145908e+01  -1.5521990e+01  -1.5723401e+01  -1.5441004e+01  -1.5061920e+01  -1.5058976e+01  -1.4882162e+01  -1.4968821e+01  -1.4659108e+01  -1.4449254e+01  -1.4467887e+01  -1.4038036e+01  -1.3737889e+01  -1.3701886e+01  -1.3656658e+01  -1.3238906e+01  -1.3207059e+01  -1.2901204e+01  -1.2623421e+01  -1.2388357e+01  -1.2224920e+01  -1.2087916e+01  -1.1995525e+01  -1.1932564e+01  -1.1712464e+01  -1.1438169e+01  -1.1567704e+01  -1.1088754e+01  -1.1461574e+01  -1.1448763e+01  -1.1429279e+01  -1.1399176e+01  -1.1578192e+01  -1.1508743e+01  -1.1627144e+01  -1.1566523e+01  -1.1672168e+01  -1.1677637e+01  -1.1447791e+01  -1.1559500e+01
  -6.9004350e+00  -6.8613727e+00  -8.1043888e+00  -9.4631043e+00  -8.9777685e+00  -8.9028517e+00  -9.6314036e+00  -1.0142354e+01  -9.4748053e+00  -9.8685281e+00  -1.0546772e+01  -1.1832546e+01  -1.3768309e+01  -1.4540037e+01  -1.5631374e+01  -1.6424517e+01  -1.5988209e+01  -1.5642285e+01  -1.5499111e+01  -1.5420931e+01  -1.5281335e+01  -1.5045747e+01  -1.4957143e+01  -1.4774423e+01  -1.4437623e+01  -1.4193682e+01  -1.4217225e+01  -1.3680334e+01  -1.3522605e+01  -1.3239490e+01  -1.3031852e+01  -1.2984443e+01  -1.2933287e+01  -1.2692774e+01  -1.2473392e+01  -1.2278011e+01  -1.2082039e+01  -1.1958164e+01  -1.2084805e+01  -1.1767004e+01  -1.1838999e+01  -1.1935488e+01  -1.1967917e+01  -1.1934236e+01  -1.1898039e+01  -1.1887795e+01  -1.1864109e+01  -1.1992764e+01  -1.2091056e+01  -1.2130117e+01  -1.2028446e+01  -1.1971597e+01
  -1.5324206e+00  -2.7165610e+00  -3.3611129e+00  -3.8381667e+00  -3.9164980e+00  -3.5120093e+00  -3.3559775e+00  -3.3693587e+00  -3.7037598e+00  -4.3464602e+00  -5.7978867e+00  -6.2444295e+00  -1.0010758e+01  -1.1577911e+01  -1.3330696e+01  -1.5528453e+01  -1.5208618e+01  -1.3919741e+01  -1.5073269e+01  -1.4099157e+01  -1.4614791e+01  -1.4628847e+01  -1.4455103e+01  -1.4740339e+01  -1.4606870e+01  -1.4267836e+01  -1.4346910e+01  -1.4229591e+01  -1.4044893e+01  -1.3710436e+01  -1.3508189e+01  -1.3488149e+01  -1.3450093e+01  -1.3337986e+01  -1.3102299e+01  -1.2832526e+01  -1.2546528e+01  -1.2352990e+01  -1.2410759e+01  -1.2257256e+01  -1.2488335e+01  -1.2358873e+01  -1.2257339e+01  -1.2153917e+01  -1.2111560e+01  -1.1999664e+01  -1.1911661e+01  -1.2170074e+01  -1.2362988e+01  -1.2652784e+01  -1.2890696e+01  -1.2989678e+01
   5.0000000e+00   8.0132150e-01   4.1019846e-01   2.2063524e-01   4.3886385e-01   2.7325431e-01   2.6272197e-01   4.8368217e-01   6.9875243e-01   2.5060202e-02  -6.5549389e-01  -1.6119257e+00  -3.6639542e+00  -5.6686388e+00  -9.8118914e+00  -1.3228569e+01  -1.2715944e+01  -1.0306119e+01  -1.2125126e+01  -9.6833801e+00  -1.1015436e+01  -1.1013584e+01  -1.0773936e+01  -1.2028047e+01  -1.3515757e+01  -1.3432875e+01  -1.3604477e+01  -1.4302118e+01  -1.4171298e+01  -1.4115875e+01  -1.4304415e+01  -1.4594039e+01  -1.4508580e+01  -1.4232612e+01  -1.4020862e+01  -1.3753598e+01  -1.3425370e+01  -1.3099060e+01  -1.3256510e+01  -1.3037596e+01  -1.3125793e+01  -1.2996683e+01  -1.2847293e+01  -1.2840605e+01  -1.2798884e+01  -1.2682908e+01  -1.2401753e+01  -1.2421421e+01  -1.2482507e+01  -1.3207469e+01  -1.4442799e+01  -1.4241685e+01
   5.0000000e+00   1.7266979e+00   1.7253779e+00   1.8066886e+00   1.7604694e+00   1.6401005e+00   1.5989635e+00   1.5365090e+00   9.4613116e-01   1.0345340e+00   8.1168613e-01   6.8334665e-01   9.0760625e-03  -1.8505408e+00  -4.5227141e+00  -8.1439278e+00  -8.1476299e+00  -5.4977423e+00  -8.0628277e+00  -5.8569912e+00  -6.4034868e+00  -5.5969084e+00  -6.3509547e+00  -9.0069250e+00  -1.0154843e+01  -1.0440342e+01  -1.0910301e+01  -1.1698980e+01  -1.1552423e+01  -1.2213039e+01  -1.3248809e+01  -1.4170849e+01  -1.4270820e+01  -1.4222125e+01  -1.4379096e+01  -1.4584025e+01  -1.4623383e+01  -1.4059189e+01  -1.4128019e+01  -1.3783750e+01  -1.3566733e+01  -1.3420649e+01  -1.3228169e+01  -1.3321905e+01  -1.3430661e+01  -1.3318023e+01  -1.3058235e+01  -1.2725425e+01  -1.2203136e+01  -1.2560044e+01  -1.3430075e+01  -1.3274582e+01
   5.0000000e+00   2.1296386e+00   2.1845263e+00   2.4370647e+00   2.1046925e+00   2.1528589e+00   1.4044298e+00   1.2312180e+00   4.4295132e-01   6.0056671e-01   1.4783070e+00   1.3033751e+00   8.8323768e-01   4.4901631e-01   3.0262528e-01  -1.2325062e+00  -2.9956861e+00  -3.0638014e+00  -2.6918889e+00  -9.2102653e-01  -1.6073341e+00  -5.0264826e-01  -2.0814343e+00  -5.6827360e+00  -6.9446566e+00  -6.1569395e+00  -6.1174437e+00  -6.5965389e+00  -6.9500162e+00  -7.6880269e+00  -9.1769408e+00  -9.7764964e+00  -1.0594474e+01  -1.1472583e+01  -1.2405470e+01  -1.3412108e+01  -1.4466127e+01  -1.4493864e+01  -1.4171290e+01  -1.3972485e+01  -1.3757516e+01  -1.3647939e+01  -1.3546351e+01  -1.3597780e+01  -1.3563372e+01  -1.3743718e+01  -1.3879087e+01  -1.3699683e+01  -1.3306304e+01  -1.3021986e+01  -1.2622410e+01  -1.2580457e+01
   5.0000000e+00   2.3409717e+00   2.6077322e+00   2.7535876e+00   2.4140429e+00  -5.1369640e-10   1.6015073e+00   5.2011989e-10  -5.2049750e-10   7.0372724e-10   4.5800554e-01   9.3859058e-01   1.3917755e+00   1.6848168e+00   2.2103166e+00   2.1244142e+00   1.9126884e+00   1.5832780e+00   9.9221146e-01   1.3354754e+00   1.4169780e+00   1.3298458e+00   6.9846823e-01  -4.4340917e-01  -1.0896570e+00  -4.5720530e-01   7.5826073e-01   5.1366510e-01  -9.3393714e-01  -2.2012105e+00  -5.1537740e+00  -4.7713792e+00  -5.3520417e+00  -6.5118227e+00  -7.7350460e+00  -9.1336952e+00  -1.0800075e+01  -1.2409880e+01  -1.2187078e+01  -1.2779745e+01  -1.3846633e+01  -1.2766508e+01  -1.1959232e+01  -1.2357697e+01  -1.2331927e+01  -1.2681397e+01  -1.3181086e+01  -1.3202451e+01  -1.3516102e+01  -1.3334217e+01  -1.2341612e+01  -1.2373164e+01
   5.0000000e+00   2.4549460e+00   2.7789210e+00   2.9388051e+00   1.2454377e+00  -2.1852911e-09  -2.2834175e-09  -3.1040031e-09   1.3517940e-09   5.2334157e-01   6.1786954e-01   5.9726595e-01   2.1217584e+00   2.2647079e+00   2.9792086e+00   2.7834278e+00   2.3981057e+00   2.2018172e+00   1.7842326e+00   1.5796052e+00   1.9408211e+00   1.5615529e+00   1.6190639e+00   1.6032977e+00   1.6266138e+00   1.8626098e+00   2.1482145e+00   1.7447391e+00   1.6989345e+00   1.3562862e+00   9.0120034e-01   7.3499364e-01  -4.2488768e-01  -1.9130238e+00  -3.1998131e+00  -4.2760501e+00  -5.3450595e+00  -6.8054005e+00  -7.5319461e+00  -8.0652040e+00  -1.1574957e+01  -9.6603608e+00  -8.5660371e+00  -8.7704845e+00  -8.6164725e+00  -8.5148141e+00  -9.3344211e+00  -9.3366220e+00  -9.6047777e+00  -9.1202506e+00  -8.0142229e+00  -8.4337081e+00
   5.0000000e+00   2.5586515e+00   2.8923289e+00   2.4588779e+00   1.2844482e+00  -1.0198266e-10   5.4791226e-11  -2.8847410e-11   5.2816488e-01   5.3970821e-01   6.2318864e-01   6.3133980e-01   2.5070669e+00   2.5874923e+00   3.2498798e+00   3.0094997e+00   2.6780899e+00   3.0683326e+00   2.2757981e+00   2.0088513e+00   2.1922841e+00   1.6431021e+00   1.7002546e+00   2.2749641e+00   2.2977542e+00   2.5115778e+00   2.4480849e+00   2.1631601e+00   1.8229304e+00   2.1551927e+00   1.7288251e+00   1.7315408e+00   1.2804923e+00   5.7037813e-01   3.7599407e-02  -5.0617530e-01  -9.4889897e-01  -1.2066165e+00  -1.7488512e+00  -3.6387021e+00  -5.6319585e+00  -4.5698933e+00  -3.8467651e+00  -4.1392905e+00  -4.1431703e+00  -3.2210459e+00  -3.8260265e+00  -3.9677386e+00  -4.0510731e+00  -4.0325497e+00  -2.4196862e+00  -2.1587333e+00
   5.0000000e+00   2.6341085e+00   2.8014200e+00   1.3159838e+00   1.3087380e+00   1.8823867e-09  -1.7586793e-09   5.5002702e-01   5.3596969e-01   6.8086474e-01   6.4589461e-01   1.2879067e+00   2.6375316e+00   2.4762445e+00   3.3728672e+00   3.8137003e+00   2.8303115e+00   2.7745948e+00   2.3497536e+00   2.1161431e+00   2.1854426e+00   2.1800409e+00   1.3462334e+00   2.4559702e+00   2.2791298e+00   2.3828108e+00   2.2555100e+00   2.7150607e+00   1.8853924e+00   2.4390234e+00   2.7301656e+00   2.5012738e+00   2.0817699e+00   1.9028457e+00   1.5899535e+00   1.3432363e+00   1.8314172e+00   1.2156892e+00   1.2403053e+00   1.0372342e+00   5.1542160e-01   3.1915913e-01   5.1292367e-01   2.6573219e-01   4.5937240e-01   7.4650580e-01   5.1372412e-01   5.8331806e-01   7.4819334e-01   6.9552103e-01   9.1941151e-01   1.2086217e+00
   5.0000000e+00   2.6912908e+00   2.8530668e+00   1.3288960e+00  -2.9457145e-09  -9.3954673e-10  -6.4986669e-10   5.5608344e-01   5.3759745e-01   6.9343210e-01   6.5704828e-01   2.0233872e+00   2.7184917e+00   2.5472916e+00   3.4374512e+00   2.6892752e+00   2.9252930e+00   2.2212130e+00   2.0928378e+00   2.2719214e+00   2.5113482e+00   2.4129944e+00   1.3568661e+00   3.1778756e+00   2.3914504e+00   2.1988287e+00   2.5196765e+00   2.8667846e+00   1.7257304e+00   2.2043154e+00   3.0803488e+00   2.7649094e+00   2.6533731e+00   2.5094834e+00   2.3716945e+00   2.2146143e+00   3.1278020e+00   1.1456024e+00   1.5858307e+00   2.0304326e+00   1.7569892e+00   1.6446335e+00   1.4568707e+00   1.4348889e+00   1.2867846e+00   1.7034517e+00   1.4995472e+00   1.8984963e+00   1.9114136e+00   1.8279569e+00   2.0741281e+00   1.6279491e+00
   5.0000000e+00   2.9139807e+00   2.8926243e+00   1.3335320e+00  -4.7174792e-10  -4.6803403e-10   5.5553693e-01   5.5789216e-01  -1.8928498e-09   7.0198756e-01   6.7245669e-01   2.6775610e+00   2.3658486e+00   3.5742246e+00   3.7228229e+00   2.7587810e+00   3.4492486e+00   2.2835509e+00   2.1004200e+00   2.3209689e+00   2.5669908e+00   2.9360966e+00   1.9625386e+00   2.7990507e+00   2.4589712e+00   2.3005968e+00   2.9031610e+00   2.9493996e+00   1.7648709e+00   1.9947886e+00   3.6072746e+00   3.0679419e+00   2.8005906e+00   2.7183883e+00   2.8406467e+00   2.7216101e+00   3.4298213e+00   1.9612237e+00   2.0492048e+00   2.4435967e+00   2.1726164e+00   1.8845863e+00   1.9004098e+00   1.8357449e+00   1.7116209e+00   1.8424168e+00   2.0528199e+00   2.2780101e+00   2.0680133e+00   1.9562157e+00   2.1263145e+00   1.3723830e+00
   5.0000000e+00   2.8720564e+00   1.6775848e+00   1.3713826e+00  -5.6610402e-10  -4.8581506e-10   5.5703473e-01  -1.5382379e-09   7.0509243e-01   7.0736078e-01   7.2124884e-01   2.7111337e+00   2.3986086e+00   3.8046095e+00   3.8083766e+00   2.8098046e+00   2.6754432e+00   2.3274417e+00   3.1394533e+00   2.3504128e+00   2.6004022e+00   2.9913779e+00   2.0147819e+00   1.6267335e+00   2.8682738e+00   2.3306630e+00   2.9550133e+00   3.1227764e+00   1.7900708e+00   3.3288378e+00   2.3896703e+00   3.0455969e+00   3.0079015e+00   2.9511678e+00   2.8763608e+00   3.5714772e+00   2.8202486e+00   1.8622971e+00   1.8887998e+00   1.8710793e+00   2.3666636e+00   2.1075379e+00   2.1184590e+00   2.0086173e+00   1.7295903e+00   2.0074466e+00   2.4364179e+00   2.0288354e+00   2.1599145e+00   2.1455943e+00   1.6018263e+00   1.3471295e+00
